ply
format ascii 1.0
element vertex 1491
property float32 x
property float32 y
property float32 z
property uchar red
property uchar green
property uchar blue
end_header
  3.10   3.70   1.24 17 0 0
  3.00   3.90   1.28 19 0 0
  3.20   3.80   1.28 25 0 0
  3.50   3.90   1.28 30 0 0
  2.60   3.90   1.32 18 0 0
  2.80   3.90   1.32 19 0 0
  2.90   3.90   1.32 18 0 0
  3.10   3.90   1.32 20 0 0
  3.20   3.90   1.32 25 0 0
  3.30   3.90   1.32 40 0 0
  3.50   4.00   1.32 31 0 0
  3.60   4.00   1.32 29 0 0
  3.80   4.00   1.32 39 0 0
  2.70   3.90   1.36 18 0 0
  2.80   4.00   1.36 30 0 0
  2.90   4.00   1.36 30 0 0
  3.00   4.00   1.36 31 0 0
  3.10   4.00   1.36 37 0 0
  3.20   4.00   1.36 62 1 0
  3.30   4.00   1.36 41 0 0
  3.40   4.00   1.36 32 0 0
  3.40   4.10   1.36 51 0 0
  3.50   4.10   1.36 29 0 0
  3.60   4.10   1.36 72 9 0
  4.00   4.00   1.36 34 0 0
  2.40   4.00   1.40 25 0 0
  2.50   4.00   1.40 25 0 0
  2.60   4.00   1.40 26 0 0
  2.70   4.00   1.40 28 0 0
  3.00   4.10   1.40 50 0 0
  3.10   4.10   1.40 64 2 0
  3.20   4.10   1.40 90 24 0
  3.30   4.10   1.40 56 0 0
  3.40   4.20   1.40 75 11 0
  3.70   4.10   1.40 45 0 0
  3.80   4.10   1.40 45 0 0
  3.90   4.10   1.40 41 0 0
  4.00   3.20   1.40 21 0 0
  4.10   4.00   1.40 43 0 0
  4.10   4.10   1.40 66 4 0
  2.10   4.00   1.44 20 0 0
  2.20   4.00   1.44 24 0 0
  2.30   4.00   1.44 25 0 0
  2.50   4.10   1.44 40 0 0
  2.60   4.10   1.44 43 0 0
  2.70   4.10   1.44 42 0 0
  2.80   4.10   1.44 46 0 0
  2.90   4.10   1.44 47 0 0
  2.90   4.20   1.44 75 11 0
  3.10   4.20   1.44 123 57 0
  3.20   4.20   1.44 88 23 0
  3.30   4.20   1.44 79 15 0
  3.50   4.20   1.44 73 10 0
  3.60   4.20   1.44 73 10 0
  3.70   4.20   1.44 73 10 0
  3.70   4.30   1.44 116 50 0
  3.80   4.20   1.44 75 11 0
  3.90   4.20   1.44 79 15 0
  4.00   4.10   1.44 27 0 0
  4.00   4.20   1.44 55 0 0
  4.10   3.00   1.44 22 0 0
  4.10   3.10   1.44 23 0 0
  4.10   3.20   1.44 21 0 0
  4.10   3.40   1.44 31 0 0
  4.10   3.60   1.44 18 0 0
  4.10   4.20   1.44 125 59 0
  4.20   3.00   1.44 46 0 0
  4.20   3.30   1.44 35 0 0
  4.20   3.40   1.44 32 0 0
  4.20   3.50   1.44 23 0 0
  4.20   3.70   1.44 21 0 0
  4.20   3.80   1.44 21 0 0
  4.20   3.90   1.44 34 0 0
  4.20   4.00   1.44 59 0 0
  4.20   4.10   1.44 121 55 0
  4.20   4.20   1.44 104 38 0
  4.30   4.00   1.44 109 43 0
  1.90   4.00   1.48 18 0 0
  2.00   4.00   1.48 18 0 0
  2.00   4.10   1.48 31 0 0
  2.10   4.10   1.48 32 0 0
  2.20   4.10   1.48 35 0 0
  2.30   4.10   1.48 37 0 0
  2.40   4.10   1.48 38 0 0
  2.40   4.20   1.48 57 0 0
  2.50   4.20   1.48 62 1 0
  2.60   4.20   1.48 71 8 0
  2.70   4.20   1.48 72 9 0
  2.80   4.20   1.48 71 8 0
  3.00   4.20   1.48 78 14 0
  3.00   4.30   1.48 127 60 0
  3.10   4.30   1.48 170 131 0
  3.20   4.30   1.48 106 39 0
  3.30   4.30   1.48 160 107 0
  3.40   4.30   1.48 121 55 0
  3.50   4.30   1.48 121 55 0
  3.60   4.30   1.48 125 59 0
  3.60   4.40   1.48 180 158 0
  3.70   4.40   1.48 179 155 0
  3.80   4.30   1.48 127 60 0
  3.80   4.40   1.48 192 192 0
  3.90   2.50   1.48 27 0 0
  3.90   4.30   1.48 131 64 0
  4.00   2.50   1.48 40 0 0
  4.00   2.60   1.48 32 0 0
  4.00   2.70   1.48 23 0 0
  4.00   2.80   1.48 18 0 0
  4.00   4.30   1.48 146 80 0
  4.00   4.40   1.48 177 149 0
  4.10   2.30   1.48 93 27 0
  4.10   2.40   1.48 69 6 0
  4.10   2.50   1.48 57 0 0
  4.10   2.60   1.48 49 0 0
  4.10   2.70   1.48 33 0 0
  4.10   2.80   1.48 28 0 0
  4.10   2.90   1.48 27 0 0
  4.10   4.30   1.48 140 74 0
  4.10   4.40   1.48 163 114 0
  4.20   2.20   1.48 192 192 0
  4.20   2.30   1.48 167 124 0
  4.20   2.40   1.48 127 60 0
  4.20   2.50   1.48 79 15 0
  4.20   2.60   1.48 79 15 0
  4.20   2.70   1.48 73 10 0
  4.20   2.80   1.48 62 1 0
  4.20   2.90   1.48 50 0 0
  4.20   3.10   1.48 40 0 0
  4.20   3.20   1.48 38 0 0
  4.20   4.30   1.48 168 126 0
  4.30   2.20   1.48 198 198 19
  4.30   2.30   1.48 228 228 128
  4.30   2.40   1.48 210 210 59
  4.30   2.50   1.48 169 129 0
  4.30   2.60   1.48 154 93 0
  4.30   2.70   1.48 150 84 0
  4.30   2.80   1.48 111 44 0
  4.30   2.90   1.48 104 38 0
  4.30   3.00   1.48 116 50 0
  4.30   3.10   1.48 104 38 0
  4.30   3.20   1.48 82 17 0
  4.30   3.30   1.48 78 14 0
  4.30   3.40   1.48 61 0 0
  4.30   3.50   1.48 42 0 0
  4.30   3.60   1.48 21 0 0
  4.30   3.70   1.48 40 0 0
  4.30   3.80   1.48 54 0 0
  4.30   3.90   1.48 64 2 0
  4.30   4.10   1.48 96 30 0
  4.30   4.20   1.48 121 55 0
  4.30   4.30   1.48 166 121 0
  4.40   2.20   1.48 120 53 0
  4.40   2.30   1.48 152 89 0
  4.40   2.40   1.48 199 199 22
  4.40   2.50   1.48 196 196 12
  4.40   2.60   1.48 185 172 0
  4.40   2.70   1.48 190 186 0
  4.40   2.80   1.48 187 177 0
  4.40   2.90   1.48 183 166 0
  4.40   3.00   1.48 162 111 0
  4.40   3.40   1.48 148 82 0
  4.40   3.50   1.48 132 66 0
  4.40   3.60   1.48 75 11 0
  4.40   3.70   1.48 96 30 0
  4.40   3.80   1.48 94 29 0
  4.40   3.90   1.48 101 35 0
  4.40   4.00   1.48 104 38 0
  4.40   4.10   1.48 111 44 0
  4.40   4.20   1.48 118 51 0
  4.40   4.30   1.48 140 74 0
  4.50   2.00   1.48 49 0 0
  4.50   2.10   1.48 61 0 0
  4.50   2.20   1.48 71 8 0
  4.50   2.30   1.48 90 24 0
  4.50   2.40   1.48 93 27 0
  4.50   2.50   1.48 140 74 0
  4.50   3.00   1.48 129 62 0
  4.50   3.50   1.48 111 44 0
  4.50   3.60   1.48 56 0 0
  4.50   3.80   1.48 50 0 0
  4.50   3.90   1.48 79 15 0
  4.50   4.00   1.48 121 55 0
  4.50   4.20   1.48 101 35 0
  4.50   4.30   1.48 69 6 0
  4.60   2.00   1.48 29 0 0
  4.60   2.10   1.48 35 0 0
  4.60   2.20   1.48 43 0 0
  4.60   2.30   1.48 43 0 0
  4.60   2.40   1.48 46 0 0
  4.60   2.50   1.48 47 0 0
  4.60   2.80   1.48 73 10 0
  4.60   2.90   1.48 116 50 0
  4.60   3.70   1.48 22 0 0
  4.60   3.80   1.48 28 0 0
  4.60   3.90   1.48 39 0 0
  4.60   4.00   1.48 61 0 0
  4.60   4.10   1.48 19 0 0
  4.60   4.20   1.48 50 0 0
  4.70   2.10   1.48 24 0 0
  4.70   2.20   1.48 23 0 0
  4.70   2.30   1.48 25 0 0
  4.70   2.40   1.48 24 0 0
  4.70   2.50   1.48 24 0 0
  4.70   3.80   1.48 38 0 0
  4.70   3.90   1.48 23 0 0
  4.80   2.50   1.48 26 0 0
  4.90   2.60   1.48 20 0 0
  1.80   4.10   1.52 25 0 0
  1.90   4.10   1.52 30 0 0
  2.00   4.20   1.52 49 0 0
  2.10   4.20   1.52 56 0 0
  2.20   4.20   1.52 54 0 0
  2.30   4.20   1.52 59 0 0
  2.40   4.30   1.52 96 30 0
  2.50   4.30   1.52 106 39 0
  2.60   4.30   1.52 113 46 0
  2.70   4.30   1.52 114 48 0
  2.80   4.30   1.52 116 50 0
  2.90   4.30   1.52 125 59 0
  3.00   4.40   1.52 184 169 0
  3.10   4.40   1.52 208 208 52
  3.20   4.40   1.52 158 102 0
  3.30   4.40   1.52 193 193 3
  3.40   4.40   1.52 220 220 96
  3.50   2.30   1.52 21 0 0
  3.50   4.40   1.52 188 180 0
  3.60   2.30   1.52 28 0 0
  3.60   4.50   1.52 202 202 32
  3.70   2.20   1.52 46 0 0
  3.70   2.30   1.52 30 0 0
  3.70   2.40   1.52 18 0 0
  3.70   4.50   1.52 198 198 19
  3.80   2.20   1.52 54 0 0
  3.80   2.30   1.52 29 0 0
  3.80   2.40   1.52 17 0 0
  3.80   4.50   1.52 169 129 0
  3.90   1.90   1.52 75 11 0
  3.90   2.00   1.52 171 134 0
  3.90   2.10   1.52 125 59 0
  3.90   2.20   1.52 60 0 0
  3.90   2.30   1.52 39 0 0
  3.90   2.40   1.52 34 0 0
  3.90   4.40   1.52 182 163 0
  3.90   4.50   1.52 159 104 0
  4.00   1.70   1.52 25 0 0
  4.00   1.80   1.52 43 0 0
  4.00   1.90   1.52 118 51 0
  4.00   2.00   1.52 157 100 0
  4.00   2.10   1.52 165 119 0
  4.00   2.20   1.52 80 16 0
  4.00   2.30   1.52 69 6 0
  4.00   2.40   1.52 53 0 0
  4.00   4.50   1.52 144 78 0
  4.10   1.70   1.52 22 0 0
  4.10   1.80   1.52 40 0 0
  4.10   1.90   1.52 80 16 0
  4.10   2.00   1.52 177 149 0
  4.10   2.10   1.52 182 163 0
  4.10   2.20   1.52 127 60 0
  4.10   4.50   1.52 134 68 0
  4.20   1.70   1.52 21 0 0
  4.20   1.80   1.52 39 0 0
  4.20   1.90   1.52 68 5 0
  4.20   2.00   1.52 120 53 0
  4.20   2.10   1.52 182 163 0
  4.20   4.40   1.52 127 60 0
  4.20   4.50   1.52 104 38 0
  4.30   1.70   1.52 18 0 0
  4.30   1.80   1.52 31 0 0
  4.30   1.90   1.52 54 0 0
  4.30   2.00   1.52 101 35 0
  4.30   2.10   1.52 154 93 0
  4.30   4.40   1.52 102 36 0
  4.30   4.50   1.52 80 16 0
  4.40   1.80   1.52 25 0 0
  4.40   1.90   1.52 36 0 0
  4.40   2.00   1.52 69 6 0
  4.40   2.10   1.52 80 16 0
  4.40   3.10   1.52 144 78 0
  4.40   3.20   1.52 163 114 0
  4.40   3.30   1.52 156 98 0
  4.40   4.40   1.52 73 10 0
  4.50   1.80   1.52 17 0 0
  4.50   1.90   1.52 34 0 0
  4.50   2.60   1.52 109 43 0
  4.50   2.70   1.52 88 23 0
  4.50   2.80   1.52 164 116 0
  4.50   2.90   1.52 148 82 0
  4.50   3.10   1.52 94 29 0
  4.50   3.20   1.52 93 27 0
  4.50   3.30   1.52 85 20 0
  4.50   3.40   1.52 42 0 0
  4.50   3.70   1.52 27 0 0
  4.50   4.10   1.52 49 0 0
  4.50   4.40   1.52 48 0 0
  4.60   1.80   1.52 18 0 0
  4.60   1.90   1.52 25 0 0
  4.60   2.60   1.52 51 0 0
  4.60   2.70   1.52 61 0 0
  4.60   3.00   1.52 65 3 0
  4.60   3.10   1.52 45 0 0
  4.60   3.20   1.52 40 0 0
  4.60   3.30   1.52 34 0 0
  4.60   3.50   1.52 49 0 0
  4.60   4.30   1.52 32 0 0
  4.60   4.40   1.52 25 0 0
  4.70   2.60   1.52 25 0 0
  4.70   2.70   1.52 33 0 0
  4.70   2.80   1.52 53 0 0
  4.70   2.90   1.52 29 0 0
  4.70   3.00   1.52 26 0 0
  4.70   3.10   1.52 21 0 0
  4.70   3.20   1.52 18 0 0
  4.70   3.30   1.52 17 0 0
  4.70   4.00   1.52 20 0 0
  4.70   4.10   1.52 17 0 0
  4.70   4.20   1.52 18 0 0
  4.70   4.30   1.52 18 0 0
  4.80   2.70   1.52 18 0 0
  4.80   2.80   1.52 30 0 0
  4.80   3.50   1.52 18 0 0
  4.80   3.80   1.52 27 0 0
  4.90   3.70   1.52 20 0 0
  1.60   4.20   1.56 25 0 0
  1.70   4.10   1.56 18 0 0
  1.70   4.20   1.56 31 0 0
  1.80   4.20   1.56 34 0 0
  1.90   4.20   1.56 45 0 0
  2.00   4.30   1.56 75 11 0
  2.10   4.30   1.56 86 21 0
  2.20   4.30   1.56 93 27 0
  2.30   4.30   1.56 88 23 0
  2.30   4.40   1.56 144 78 0
  2.40   4.40   1.56 169 129 0
  2.50   4.40   1.56 178 152 0
  2.60   4.40   1.56 184 169 0
  2.70   4.40   1.56 185 172 0
  2.80   4.40   1.56 189 183 0
  2.80   4.50   1.56 168 126 0
  2.90   4.40   1.56 197 197 15
  3.00   2.20   1.56 25 0 0
  3.00   4.50   1.56 203 203 35
  3.10   2.20   1.56 29 0 0
  3.10   4.50   1.56 219 219 92
  3.20   2.10   1.56 51 0 0
  3.20   2.20   1.56 31 0 0
  3.20   4.50   1.56 228 228 128
  3.30   2.10   1.56 64 2 0
  3.30   2.20   1.56 32 0 0
  3.30   4.50   1.56 255 255 251
  3.40   2.00   1.56 125 59 0
  3.40   2.10   1.56 61 0 0
  3.40   2.20   1.56 30 0 0
  3.40   4.50   1.56 234 234 154
  3.50   1.90   1.56 132 66 0
  3.50   2.00   1.56 157 100 0
  3.50   2.10   1.56 79 15 0
  3.50   2.20   1.56 35 0 0
  3.50   4.50   1.56 209 209 56
  3.50   4.60   1.56 140 74 0
  3.60   1.80   1.56 66 4 0
  3.60   1.90   1.56 162 111 0
  3.60   2.00   1.56 131 64 0
  3.60   2.10   1.56 90 24 0
  3.60   2.20   1.56 39 0 0
  3.60   4.60   1.56 116 50 0
  3.70   1.60   1.56 19 0 0
  3.70   1.70   1.56 57 0 0
  3.70   1.80   1.56 99 33 0
  3.70   1.90   1.56 192 192 0
  3.70   2.00   1.56 151 87 0
  3.70   2.10   1.56 88 23 0
  3.70   4.60   1.56 127 60 0
  3.80   1.60   1.56 36 0 0
  3.80   1.70   1.56 33 0 0
  3.80   1.80   1.56 66 4 0
  3.80   1.90   1.56 150 84 0
  3.80   2.00   1.56 182 163 0
  3.80   2.10   1.56 88 23 0
  3.80   4.60   1.56 111 44 0
  3.90   1.70   1.56 27 0 0
  3.90   1.80   1.56 54 0 0
  3.90   4.60   1.56 93 27 0
  4.00   4.60   1.56 78 14 0
  4.10   4.60   1.56 68 5 0
  4.20   4.60   1.56 55 0 0
  4.20   4.70   1.56 29 0 0
  4.30   4.60   1.56 59 0 0
  4.40   4.50   1.56 48 0 0
  4.40   4.60   1.56 34 0 0
  4.50   4.50   1.56 27 0 0
  4.50   4.60   1.56 22 0 0
  1.40   4.20   1.60 21 0 0
  1.50   4.20   1.60 25 0 0
  1.50   4.30   1.60 39 0 0
  1.60   4.30   1.60 51 0 0
  1.70   4.30   1.60 64 2 0
  1.80   4.30   1.60 72 9 0
  1.80   4.40   1.60 96 30 0
  1.90   4.30   1.60 62 1 0
  1.90   4.40   1.60 140 74 0
  2.00   4.40   1.60 155 95 0
  2.10   4.40   1.60 163 114 0
  2.20   4.40   1.60 132 66 0
  2.20   4.50   1.60 162 111 0
  2.30   4.50   1.60 167 124 0
  2.40   4.50   1.60 151 87 0
  2.50   4.50   1.60 155 95 0
  2.50   4.60   1.60 83 19 0
  2.60   4.50   1.60 161 109 0
  2.70   2.20   1.60 21 0 0
  2.70   4.50   1.60 162 111 0
  2.70   4.60   1.60 97 32 0
  2.80   2.20   1.60 24 0 0
  2.80   4.60   1.60 106 39 0
  2.90   2.10   1.60 46 0 0
  2.90   2.20   1.60 25 0 0
  2.90   4.50   1.60 175 144 0
  2.90   4.60   1.60 107 41 0
  3.00   2.00   1.60 80 16 0
  3.00   2.10   1.60 54 0 0
  3.00   4.60   1.60 116 50 0
  3.10   1.90   1.60 150 84 0
  3.10   2.00   1.60 91 26 0
  3.10   2.10   1.60 49 0 0
  3.10   4.60   1.60 127 60 0
  3.10   4.70   1.60 71 8 0
  3.20   1.90   1.60 152 89 0
  3.20   2.00   1.60 113 46 0
  3.20   4.60   1.60 178 152 0
  3.20   4.70   1.60 80 16 0
  3.30   1.70   1.60 36 0 0
  3.30   1.80   1.60 72 9 0
  3.30   1.90   1.60 160 107 0
  3.30   2.00   1.60 111 44 0
  3.30   4.60   1.60 157 100 0
  3.40   1.60   1.60 22 0 0
  3.40   1.70   1.60 57 0 0
  3.40   1.80   1.60 73 10 0
  3.40   1.90   1.60 159 104 0
  3.40   4.60   1.60 144 78 0
  3.40   4.70   1.60 88 23 0
  3.50   1.50   1.60 24 0 0
  3.50   1.60   1.60 36 0 0
  3.50   1.70   1.60 21 0 0
  3.50   1.80   1.60 75 11 0
  3.50   4.70   1.60 78 14 0
  3.60   1.70   1.60 41 0 0
  3.60   4.70   1.60 65 3 0
  3.70   4.70   1.60 62 1 0
  3.80   4.70   1.60 57 0 0
  3.90   4.70   1.60 53 0 0
  3.90   4.80   1.60 25 0 0
  4.00   4.70   1.60 41 0 0
  4.00   4.80   1.60 18 0 0
  4.10   4.70   1.60 35 0 0
  4.20   4.80   1.60 17 0 0
  4.30   4.70   1.60 23 0 0
  1.30   4.30   1.64 17 0 0
  1.40   4.30   1.64 25 0 0
  1.40   4.40   1.64 34 0 0
  1.50   4.40   1.64 45 0 0
  1.60   4.40   1.64 79 15 0
  1.70   4.40   1.64 99 33 0
  1.70   4.50   1.64 80 16 0
  1.80   4.50   1.64 129 62 0
  1.90   4.50   1.64 107 41 0
  2.00   4.50   1.64 125 59 0
  2.00   4.60   1.64 69 6 0
  2.10   4.50   1.64 125 59 0
  2.10   4.60   1.64 76 12 0
  2.20   4.60   1.64 72 9 0
  2.30   4.60   1.64 86 21 0
  2.40   4.60   1.64 85 20 0
  2.40   4.70   1.64 47 0 0
  2.50   4.70   1.64 47 0 0
  2.60   2.10   1.64 46 0 0
  2.60   4.60   1.64 88 23 0
  2.60   4.70   1.64 49 0 0
  2.70   2.00   1.64 86 21 0
  2.70   2.10   1.64 42 0 0
  2.70   4.70   1.64 54 0 0
  2.80   1.90   1.64 113 46 0
  2.80   2.00   1.64 75 11 0
  2.80   2.10   1.64 45 0 0
  2.80   4.70   1.64 60 0 0
  2.90   1.70   1.64 39 0 0
  2.90   1.80   1.64 90 24 0
  2.90   1.90   1.64 138 72 0
  2.90   2.00   1.64 97 32 0
  2.90   4.70   1.64 62 1 0
  3.00   1.60   1.64 18 0 0
  3.00   1.70   1.64 43 0 0
  3.00   1.80   1.64 104 38 0
  3.00   1.90   1.64 159 104 0
  3.00   4.70   1.64 64 2 0
  3.00   4.80   1.64 35 0 0
  3.10   1.60   1.64 17 0 0
  3.10   1.70   1.64 59 0 0
  3.10   1.80   1.64 113 46 0
  3.10   4.80   1.64 40 0 0
  3.20   1.60   1.64 18 0 0
  3.20   1.70   1.64 22 0 0
  3.20   1.80   1.64 50 0 0
  3.20   4.80   1.64 46 0 0
  3.30   1.60   1.64 18 0 0
  3.30   4.70   1.64 121 55 0
  3.30   4.80   1.64 78 14 0
  3.40   4.80   1.64 53 0 0
  3.50   4.80   1.64 43 0 0
  3.60   4.80   1.64 35 0 0
  3.70   4.80   1.64 34 0 0
  3.80   4.80   1.64 29 0 0
  1.10   4.40   1.68 18 0 0
  1.20   4.40   1.68 30 0 0
  1.30   4.40   1.68 26 0 0
  1.40   4.50   1.68 51 0 0
  1.50   4.50   1.68 69 6 0
  1.60   4.50   1.68 56 0 0
  1.60   4.60   1.68 48 0 0
  1.70   4.60   1.68 57 0 0
  1.80   4.60   1.68 50 0 0
  1.90   4.60   1.68 60 0 0
  1.90   4.70   1.68 36 0 0
  2.00   4.70   1.68 40 0 0
  2.10   4.70   1.68 41 0 0
  2.20   4.70   1.68 41 0 0
  2.20   4.80   1.68 25 0 0
  2.30   4.70   1.68 43 0 0
  2.30   4.80   1.68 25 0 0
  2.40   2.10   1.68 39 0 0
  2.40   2.20   1.68 25 0 0
  2.40   4.80   1.68 27 0 0
  2.50   1.90   1.68 114 48 0
  2.50   2.00   1.68 83 19 0
  2.50   2.10   1.68 40 0 0
  2.50   2.20   1.68 25 0 0
  2.50   4.80   1.68 27 0 0
  2.60   1.70   1.68 31 0 0
  2.60   1.80   1.68 64 2 0
  2.60   1.90   1.68 104 38 0
  2.60   2.00   1.68 85 20 0
  2.60   2.20   1.68 22 0 0
  2.60   4.80   1.68 29 0 0
  2.70   1.60   1.68 18 0 0
  2.70   1.70   1.68 36 0 0
  2.70   1.80   1.68 78 14 0
  2.70   1.90   1.68 140 74 0
  2.70   4.80   1.68 31 0 0
  2.80   1.60   1.68 19 0 0
  2.80   1.70   1.68 39 0 0
  2.80   1.80   1.68 73 10 0
  2.80   4.80   1.68 34 0 0
  2.90   1.60   1.68 18 0 0
  2.90   4.80   1.68 34 0 0
  2.90   4.90   1.68 18 0 0
  3.20   4.90   1.68 28 0 0
  3.30   4.90   1.68 46 0 0
  3.40   4.90   1.68 25 0 0
  3.50   4.90   1.68 21 0 0
  3.60   4.90   1.68 18 0 0
  1.20   4.50   1.72 17 0 0
  1.30   4.50   1.72 39 0 0
  1.30   4.60   1.72 21 0 0
  1.40   4.60   1.72 27 0 0
  1.40   4.70   1.72 22 0 0
  1.50   4.60   1.72 42 0 0
  1.50   4.70   1.72 28 0 0
  1.60   4.70   1.72 29 0 0
  1.70   4.70   1.72 29 0 0
  1.70   4.80   1.72 18 0 0
  1.80   4.70   1.72 33 0 0
  1.80   4.80   1.72 17 0 0
  1.90   4.80   1.72 20 0 0
  2.00   2.20   1.72 24 0 0
  2.00   4.80   1.72 24 0 0
  2.10   2.10   1.72 38 0 0
  2.10   2.20   1.72 21 0 0
  2.10   4.80   1.72 24 0 0
  2.20   2.00   1.72 83 19 0
  2.20   2.10   1.72 39 0 0
  2.20   2.20   1.72 23 0 0
  2.30   1.70   1.72 28 0 0
  2.30   1.80   1.72 51 0 0
  2.30   1.90   1.72 125 59 0
  2.30   2.00   1.72 78 14 0
  2.30   2.10   1.72 41 0 0
  2.30   2.20   1.72 26 0 0
  2.40   1.70   1.72 28 0 0
  2.40   1.80   1.72 59 0 0
  2.40   1.90   1.72 116 50 0
  2.40   2.00   1.72 65 3 0
  2.50   1.70   1.72 28 0 0
  2.50   1.80   1.72 62 1 0
  2.80   4.90   1.72 18 0 0
  3.00   4.90   1.72 20 0 0
  3.10   4.90   1.72 23 0 0
  3.30   5.00   1.72 30 0 0
  1.70   2.10   1.76 25 0 0
  1.80   2.20   1.76 17 0 0
  1.90   1.90   1.76 82 17 0
  1.90   2.00   1.76 46 0 0
  1.90   2.10   1.76 33 0 0
  1.90   2.20   1.76 21 0 0
  2.00   1.70   1.76 31 0 0
  2.00   1.80   1.76 68 5 0
  2.00   1.90   1.76 86 21 0
  2.00   2.00   1.76 60 0 0
  2.00   2.10   1.76 47 0 0
  2.10   1.70   1.76 29 0 0
  2.10   1.80   1.76 68 5 0
  2.10   1.90   1.76 113 46 0
  2.10   2.00   1.76 75 11 0
  2.20   1.70   1.76 30 0 0
  2.20   1.80   1.76 59 0 0
  2.20   1.90   1.76 109 43 0
  3.30   5.10   1.76 18 0 0
  1.50   2.00   1.80 37 0 0
  1.50   2.10   1.80 25 0 0
  1.60   1.80   1.80 37 0 0
  1.60   1.90   1.80 59 0 0
  1.60   2.00   1.80 42 0 0
  1.60   2.10   1.80 21 0 0
  1.70   1.80   1.80 43 0 0
  1.70   1.90   1.80 65 3 0
  1.70   2.00   1.80 47 0 0
  1.80   1.70   1.80 31 0 0
  1.80   1.80   1.80 59 0 0
  1.80   1.90   1.80 75 11 0
  1.80   2.00   1.80 49 0 0
  1.80   2.10   1.80 24 0 0
  1.90   1.70   1.80 29 0 0
  1.90   1.80   1.80 62 1 0
  1.20   1.90   1.84 18 0 0
  1.30   1.90   1.84 26 0 0
  1.40   1.70   1.84 18 0 0
  1.40   1.80   1.84 21 0 0
  1.40   1.90   1.84 36 0 0
  1.40   2.00   1.84 22 0 0
  1.50   1.70   1.84 21 0 0
  1.50   1.80   1.84 32 0 0
  1.50   1.90   1.84 48 0 0
  1.60   1.70   1.84 21 0 0
  1.70   1.70   1.84 25 0 0
  3.30   2.70   5.00 37 0 0
  3.40   2.70   5.00 18 0 0
  3.40   2.80   5.00 45 0 0
  3.40   3.10   5.00 18 0 0
  3.50   2.60   5.00 51 0 0
  3.60   2.70   5.00 48 0 0
  3.60   2.80   5.00 34 0 0
  3.70   2.80   5.00 38 0 0
  3.70   2.90   5.00 28 0 0
  3.70   3.00   5.00 18 0 0
  3.80   2.80   5.00 49 0 0
  3.80   2.90   5.00 35 0 0
  3.80   3.00   5.00 27 0 0
  3.80   3.10   5.00 18 0 0
  1.90   3.00   5.04 68 5 0
  2.00   3.10   5.04 91 26 0
  2.10   3.10   5.04 25 0 0
  2.10   3.20   5.04 34 0 0
  2.10   3.40   5.04 18 0 0
  2.60   2.60   5.04 57 0 0
  2.70   2.60   5.04 76 12 0
  2.90   2.50   5.04 118 51 0
  3.00   2.60   5.04 76 12 0
  3.10   2.50   5.04 99 33 0
  3.10   2.60   5.04 64 2 0
  3.10   2.70   5.04 26 0 0
  3.20   2.40   5.04 146 80 0
  3.20   2.50   5.04 94 29 0
  3.20   2.60   5.04 60 0 0
  3.20   2.70   5.04 69 6 0
  3.20   2.80   5.04 34 0 0
  3.20   2.90   5.04 27 0 0
  3.30   2.40   5.04 107 41 0
  3.30   2.50   5.04 62 1 0
  3.30   2.60   5.04 59 0 0
  3.40   2.40   5.04 183 166 0
  3.40   2.50   5.04 134 68 0
  3.40   2.60   5.04 56 0 0
  3.40   2.90   5.04 19 0 0
  3.50   2.40   5.04 154 93 0
  3.50   2.50   5.04 97 32 0
  3.50   2.70   5.04 35 0 0
  3.50   3.00   5.04 34 0 0
  3.60   2.50   5.04 51 0 0
  3.60   2.60   5.04 30 0 0
  3.60   2.90   5.04 23 0 0
  3.70   2.50   5.04 101 35 0
  3.70   2.60   5.04 78 14 0
  3.70   2.70   5.04 54 0 0
  3.80   2.60   5.04 97 32 0
  3.80   2.70   5.04 68 5 0
  3.90   2.70   5.04 86 21 0
  3.90   2.80   5.04 65 3 0
  3.90   2.90   5.04 46 0 0
  3.90   3.00   5.04 37 0 0
  3.90   3.10   5.04 24 0 0
  3.90   3.20   5.04 18 0 0
  3.90   3.30   5.04 18 0 0
  3.90   3.40   5.04 18 0 0
  4.00   2.90   5.04 68 5 0
  4.00   3.00   5.04 50 0 0
  4.00   3.10   5.04 33 0 0
  4.00   3.20   5.04 34 0 0
  4.00   3.30   5.04 29 0 0
  4.00   3.40   5.04 18 0 0
  4.00   3.50   5.04 19 0 0
  4.10   3.10   5.04 49 0 0
  4.10   3.20   5.04 46 0 0
  4.10   3.30   5.04 38 0 0
  4.10   3.40   5.04 33 0 0
  4.10   3.50   5.04 25 0 0
  4.10   3.60   5.04 19 0 0
  4.10   3.70   5.04 21 0 0
  1.60   3.30   5.08 24 0 0
  1.70   3.20   5.08 37 0 0
  1.70   3.30   5.08 26 0 0
  1.70   3.40   5.08 25 0 0
  1.70   3.50   5.08 25 0 0
  1.80   2.90   5.08 17 0 0
  1.80   3.00   5.08 24 0 0
  1.80   3.10   5.08 36 0 0
  1.80   3.20   5.08 65 3 0
  1.80   3.30   5.08 47 0 0
  1.80   3.40   5.08 54 0 0
  1.80   3.50   5.08 60 0 0
  1.80   3.60   5.08 59 0 0
  1.90   2.60   5.08 18 0 0
  1.90   2.70   5.08 21 0 0
  1.90   2.80   5.08 27 0 0
  1.90   2.90   5.08 38 0 0
  1.90   3.10   5.08 60 0 0
  1.90   3.20   5.08 59 0 0
  1.90   3.30   5.08 85 20 0
  1.90   3.40   5.08 85 20 0
  1.90   3.50   5.08 68 5 0
  1.90   3.60   5.08 68 5 0
  1.90   3.70   5.08 65 3 0
  2.00   2.40   5.08 25 0 0
  2.00   2.50   5.08 30 0 0
  2.00   2.60   5.08 40 0 0
  2.00   2.70   5.08 65 3 0
  2.00   2.80   5.08 43 0 0
  2.00   2.90   5.08 56 0 0
  2.00   3.00   5.08 61 0 0
  2.00   3.20   5.08 68 5 0
  2.00   3.30   5.08 43 0 0
  2.00   3.40   5.08 39 0 0
  2.00   3.50   5.08 32 0 0
  2.00   3.60   5.08 37 0 0
  2.00   3.70   5.08 36 0 0
  2.00   3.80   5.08 31 0 0
  2.10   2.20   5.08 19 0 0
  2.10   2.40   5.08 45 0 0
  2.10   2.50   5.08 55 0 0
  2.10   2.60   5.08 83 19 0
  2.10   2.70   5.08 60 0 0
  2.10   2.80   5.08 65 3 0
  2.10   2.90   5.08 64 2 0
  2.10   3.00   5.08 42 0 0
  2.10   3.30   5.08 24 0 0
  2.20   2.40   5.08 68 5 0
  2.20   2.50   5.08 107 41 0
  2.20   2.60   5.08 86 21 0
  2.20   2.70   5.08 88 23 0
  2.20   2.80   5.08 82 17 0
  2.20   2.90   5.08 54 0 0
  2.20   3.00   5.08 42 0 0
  2.20   3.10   5.08 28 0 0
  2.30   2.30   5.08 85 20 0
  2.30   2.40   5.08 136 70 0
  2.30   2.50   5.08 107 41 0
  2.30   2.60   5.08 120 53 0
  2.30   2.70   5.08 101 35 0
  2.30   2.80   5.08 65 3 0
  2.30   2.90   5.08 49 0 0
  2.30   3.00   5.08 38 0 0
  2.40   2.20   5.08 60 0 0
  2.40   2.30   5.08 96 30 0
  2.40   2.40   5.08 160 107 0
  2.40   2.50   5.08 150 84 0
  2.40   2.60   5.08 121 55 0
  2.40   2.70   5.08 90 24 0
  2.40   2.80   5.08 56 0 0
  2.40   2.90   5.08 43 0 0
  2.50   2.20   5.08 96 30 0
  2.50   2.30   5.08 153 91 0
  2.50   2.40   5.08 181 160 0
  2.50   2.50   5.08 146 80 0
  2.50   2.60   5.08 154 93 0
  2.50   2.70   5.08 101 35 0
  2.50   2.80   5.08 55 0 0
  2.50   2.90   5.08 41 0 0
  2.60   2.20   5.08 107 41 0
  2.60   2.30   5.08 187 177 0
  2.60   2.40   5.08 170 131 0
  2.60   2.50   5.08 123 57 0
  2.60   2.70   5.08 37 0 0
  2.60   2.80   5.08 54 0 0
  2.60   2.90   5.08 42 0 0
  2.70   2.10   5.08 76 12 0
  2.70   2.20   5.08 142 76 0
  2.70   2.30   5.08 210 210 59
  2.70   2.40   5.08 171 134 0
  2.70   2.50   5.08 153 91 0
  2.70   2.70   5.08 102 36 0
  2.70   2.80   5.08 85 20 0
  2.70   2.90   5.08 48 0 0
  2.80   2.00   5.08 43 0 0
  2.80   2.10   5.08 85 20 0
  2.80   2.20   5.08 169 129 0
  2.80   2.30   5.08 205 205 42
  2.80   2.40   5.08 161 109 0
  2.80   2.50   5.08 80 16 0
  2.80   2.60   5.08 120 53 0
  2.80   2.70   5.08 45 0 0
  2.80   2.80   5.08 56 0 0
  2.80   2.90   5.08 71 8 0
  2.90   1.90   5.08 26 0 0
  2.90   2.00   5.08 49 0 0
  2.90   2.10   5.08 106 39 0
  2.90   2.20   5.08 197 197 15
  2.90   2.30   5.08 220 220 96
  2.90   2.40   5.08 181 160 0
  2.90   2.60   5.08 85 20 0
  2.90   2.70   5.08 86 21 0
  2.90   2.80   5.08 43 0 0
  2.90   2.90   5.08 38 0 0
  2.90   3.00   5.08 37 0 0
  3.00   2.00   5.08 56 0 0
  3.00   2.10   5.08 125 59 0
  3.00   2.20   5.08 229 229 132
  3.00   2.30   5.08 252 252 236
  3.00   2.40   5.08 160 107 0
  3.00   2.50   5.08 152 89 0
  3.00   2.70   5.08 48 0 0
  3.00   2.80   5.08 40 0 0
  3.00   2.90   5.08 33 0 0
  3.00   3.00   5.08 28 0 0
  3.10   2.00   5.08 94 29 0
  3.10   2.10   5.08 162 111 0
  3.10   2.20   5.08 209 209 56
  3.10   2.30   5.08 190 186 0
  3.10   2.40   5.08 150 84 0
  3.10   2.80   5.08 36 0 0
  3.10   2.90   5.08 31 0 0
  3.10   3.00   5.08 26 0 0
  3.10   3.10   5.08 22 0 0
  3.20   2.10   5.08 127 60 0
  3.20   2.20   5.08 203 203 35
  3.20   2.30   5.08 183 166 0
  3.20   3.00   5.08 24 0 0
  3.20   3.20   5.08 17 0 0
  3.30   2.10   5.08 114 48 0
  3.30   2.20   5.08 171 134 0
  3.30   2.30   5.08 196 196 12
  3.30   2.90   5.08 25 0 0
  3.30   3.00   5.08 22 0 0
  3.40   2.10   5.08 83 19 0
  3.40   2.20   5.08 151 87 0
  3.40   2.30   5.08 184 169 0
  3.50   2.20   5.08 132 66 0
  3.50   2.30   5.08 164 116 0
  3.60   2.20   5.08 79 15 0
  3.60   2.30   5.08 164 116 0
  3.60   2.40   5.08 154 93 0
  3.70   2.30   5.08 132 66 0
  3.70   2.40   5.08 155 95 0
  3.80   2.30   5.08 96 30 0
  3.80   2.40   5.08 208 208 52
  3.80   2.50   5.08 142 76 0
  3.90   2.30   5.08 76 12 0
  3.90   2.50   5.08 203 203 35
  3.90   2.60   5.08 129 62 0
  4.00   2.20   5.08 29 0 0
  4.00   2.40   5.08 114 48 0
  4.00   2.60   5.08 178 152 0
  4.00   2.70   5.08 113 46 0
  4.00   2.80   5.08 75 11 0
  4.10   2.30   5.08 46 0 0
  4.10   2.40   5.08 59 0 0
  4.10   2.80   5.08 146 80 0
  4.10   2.90   5.08 91 26 0
  4.10   3.00   5.08 62 1 0
  4.20   2.20   5.08 19 0 0
  4.20   2.30   5.08 31 0 0
  4.20   2.40   5.08 37 0 0
  4.20   2.50   5.08 59 0 0
  4.20   2.90   5.08 150 84 0
  4.20   3.00   5.08 114 48 0
  4.20   3.10   5.08 104 38 0
  4.20   3.20   5.08 88 23 0
  4.20   3.30   5.08 50 0 0
  4.20   3.40   5.08 40 0 0
  4.20   3.50   5.08 39 0 0
  4.20   3.60   5.08 31 0 0
  4.20   3.70   5.08 40 0 0
  4.20   3.80   5.08 22 0 0
  4.20   3.90   5.08 17 0 0
  4.30   2.40   5.08 20 0 0
  4.30   2.50   5.08 34 0 0
  4.30   2.60   5.08 53 0 0
  4.30   3.10   5.08 75 11 0
  4.30   3.20   5.08 68 5 0
  4.30   3.30   5.08 86 21 0
  4.30   3.40   5.08 75 11 0
  4.30   3.50   5.08 64 2 0
  4.30   3.60   5.08 54 0 0
  4.30   3.70   5.08 30 0 0
  4.30   3.80   5.08 40 0 0
  4.30   3.90   5.08 35 0 0
  4.30   4.00   5.08 25 0 0
  4.40   2.50   5.08 20 0 0
  4.40   2.60   5.08 29 0 0
  4.40   3.70   5.08 33 0 0
  4.40   3.80   5.08 31 0 0
  4.50   2.60   5.08 17 0 0
  1.70   3.60   5.12 26 0 0
  1.70   3.70   5.12 30 0 0
  1.70   3.80   5.12 25 0 0
  1.80   3.70   5.12 51 0 0
  1.80   3.80   5.12 45 0 0
  1.80   3.90   5.12 40 0 0
  1.90   3.80   5.12 57 0 0
  1.90   3.90   5.12 54 0 0
  1.90   4.00   5.12 43 0 0
  2.00   3.90   5.12 31 0 0
  2.00   4.00   5.12 30 0 0
  2.10   2.10   5.12 18 0 0
  2.10   2.30   5.12 29 0 0
  2.20   2.10   5.12 26 0 0
  2.20   2.20   5.12 40 0 0
  2.20   2.30   5.12 50 0 0
  2.30   2.10   5.12 28 0 0
  2.30   2.20   5.12 55 0 0
  2.30   3.10   5.12 25 0 0
  2.40   2.00   5.12 23 0 0
  2.40   2.10   5.12 38 0 0
  2.40   3.00   5.12 36 0 0
  2.40   3.10   5.12 26 0 0
  2.40   3.20   5.12 20 0 0
  2.50   2.00   5.12 28 0 0
  2.50   2.10   5.12 47 0 0
  2.50   3.00   5.12 34 0 0
  2.50   3.10   5.12 27 0 0
  2.60   1.90   5.12 18 0 0
  2.60   2.00   5.12 30 0 0
  2.60   2.10   5.12 61 0 0
  2.60   3.00   5.12 32 0 0
  2.70   1.90   5.12 22 0 0
  2.70   2.00   5.12 39 0 0
  2.70   3.00   5.12 33 0 0
  2.80   1.90   5.12 25 0 0
  2.80   3.00   5.12 64 2 0
  2.80   3.10   5.12 31 0 0
  2.80   3.20   5.12 22 0 0
  2.90   3.10   5.12 50 0 0
  3.00   1.80   5.12 19 0 0
  3.00   1.90   5.12 32 0 0
  3.00   3.10   5.12 25 0 0
  3.00   3.20   5.12 42 0 0
  3.10   1.60   5.12 20 0 0
  3.10   1.70   5.12 28 0 0
  3.10   1.80   5.12 40 0 0
  3.10   1.90   5.12 60 0 0
  3.10   3.20   5.12 21 0 0
  3.20   1.80   5.12 24 0 0
  3.20   1.90   5.12 38 0 0
  3.20   2.00   5.12 69 6 0
  3.20   3.10   5.12 21 0 0
  3.30   1.80   5.12 19 0 0
  3.30   1.90   5.12 31 0 0
  3.30   2.00   5.12 49 0 0
  3.30   3.10   5.12 20 0 0
  3.40   1.90   5.12 25 0 0
  3.40   2.00   5.12 41 0 0
  3.50   1.90   5.12 22 0 0
  3.50   2.00   5.12 36 0 0
  3.50   2.10   5.12 61 0 0
  3.60   1.90   5.12 18 0 0
  3.60   2.00   5.12 30 0 0
  3.60   2.10   5.12 45 0 0
  3.70   2.00   5.12 24 0 0
  3.70   2.10   5.12 39 0 0
  3.70   2.20   5.12 54 0 0
  3.80   2.10   5.12 28 0 0
  3.80   2.20   5.12 56 0 0
  3.90   2.10   5.12 21 0 0
  3.90   2.20   5.12 39 0 0
  3.90   2.40   5.12 167 124 0
  4.00   2.30   5.12 68 5 0
  4.00   2.50   5.12 180 158 0
  4.10   2.20   5.12 22 0 0
  4.10   2.50   5.12 123 57 0
  4.10   2.60   5.12 173 139 0
  4.10   2.70   5.12 165 119 0
  4.20   2.60   5.12 91 26 0
  4.20   2.70   5.12 159 104 0
  4.20   2.80   5.12 138 72 0
  4.30   2.70   5.12 65 3 0
  4.30   2.80   5.12 121 55 0
  4.30   2.90   5.12 109 43 0
  4.30   3.00   5.12 104 38 0
  4.30   4.10   5.12 19 0 0
  4.40   2.70   5.12 35 0 0
  4.40   2.80   5.12 48 0 0
  4.40   2.90   5.12 94 29 0
  4.40   3.00   5.12 86 21 0
  4.40   3.10   5.12 79 15 0
  4.40   3.20   5.12 71 8 0
  4.40   3.30   5.12 68 5 0
  4.40   3.40   5.12 55 0 0
  4.40   3.50   5.12 49 0 0
  4.40   3.60   5.12 31 0 0
  4.40   3.90   5.12 20 0 0
  4.50   2.70   5.12 20 0 0
  4.50   2.80   5.12 25 0 0
  4.50   2.90   5.12 54 0 0
  4.50   3.00   5.12 37 0 0
  4.50   3.10   5.12 37 0 0
  4.50   3.20   5.12 38 0 0
  4.50   3.30   5.12 38 0 0
  4.50   3.40   5.12 35 0 0
  4.50   3.50   5.12 36 0 0
  4.50   3.60   5.12 21 0 0
  4.50   3.70   5.12 19 0 0
  4.50   3.80   5.12 22 0 0
  4.50   3.90   5.12 22 0 0
  4.60   3.00   5.12 21 0 0
  4.60   3.10   5.12 38 0 0
  4.60   3.20   5.12 23 0 0
  4.60   3.30   5.12 22 0 0
  4.60   3.40   5.12 24 0 0
  4.60   3.50   5.12 20 0 0
  4.70   3.10   5.12 25 0 0
  4.80   3.20   5.12 18 0 0
  1.70   3.90   5.16 19 0 0
  1.70   4.00   5.16 18 0 0
  1.80   4.00   5.16 29 0 0
  1.90   4.10   5.16 32 0 0
  2.00   4.10   5.16 19 0 0
  2.50   3.20   5.16 21 0 0
  2.60   3.10   5.16 27 0 0
  2.60   3.20   5.16 21 0 0
  2.70   3.10   5.16 30 0 0
  2.70   3.20   5.16 21 0 0
  2.80   3.30   5.16 18 0 0
  2.90   3.20   5.16 27 0 0
  2.90   3.30   5.16 18 0 0
  2.90   3.40   5.16 31 0 0
  3.00   3.30   5.16 37 0 0
  3.10   3.30   5.16 22 0 0
  3.10   3.40   5.16 27 0 0
  1.90   4.20   5.20 25 0 0
  2.90   3.50   5.20 28 0 0
  2.80   3.60   5.24 23 0 0
  2.90   3.70   5.28 21 0 0
  2.50   2.20   8.40 31 0 0
  2.80   2.50   8.40 27 0 0
  2.80   2.60   8.40 46 0 0
  2.90   2.60   8.40 25 0 0
  2.90   2.70   8.40 40 0 0
  2.90   2.80   8.40 59 0 0
  2.90   5.00   8.40 24 0 0
  3.00   2.70   8.40 25 0 0
  3.00   2.80   8.40 35 0 0
  3.00   2.90   8.40 42 0 0
  3.10   2.80   8.40 18 0 0
  3.10   2.90   8.40 28 0 0
  3.10   3.00   8.40 35 0 0
  3.20   3.00   8.40 22 0 0
  3.20   3.10   8.40 28 0 0
  3.30   3.20   8.40 21 0 0
  3.30   3.30   8.40 26 0 0
  3.40   3.30   8.40 17 0 0
  2.10   1.80   8.44 57 0 0
  2.10   1.90   8.44 56 0 0
  2.20   1.80   8.44 131 64 0
  2.20   1.90   8.44 71 8 0
  2.20   2.00   8.44 114 48 0
  2.30   1.80   8.44 49 0 0
  2.30   1.90   8.44 23 0 0
  2.30   2.00   8.44 54 0 0
  2.30   2.10   8.44 121 55 0
  2.40   1.90   8.44 23 0 0
  2.40   2.10   8.44 36 0 0
  2.40   2.20   8.44 101 35 0
  2.50   1.90   8.44 17 0 0
  2.50   2.30   8.44 69 6 0
  2.60   2.30   8.44 26 0 0
  2.60   2.40   8.44 56 0 0
  2.60   2.50   8.44 96 30 0
  2.70   2.40   8.44 30 0 0
  2.70   2.50   8.44 50 0 0
  2.70   2.60   8.44 83 19 0
  2.70   5.00   8.44 18 0 0
  2.80   2.70   8.44 66 4 0
  2.80   5.00   8.44 21 0 0
  2.90   2.90   8.44 79 15 0
  3.00   3.00   8.44 62 1 0
  3.00   5.00   8.44 25 0 0
  3.10   3.10   8.44 46 0 0
  3.10   5.00   8.44 27 0 0
  3.20   3.20   8.44 33 0 0
  3.20   5.00   8.44 29 0 0
  3.40   3.40   8.44 20 0 0
  3.50   3.50   8.44 18 0 0
  1.80   1.40   8.48 21 0 0
  1.80   1.50   8.48 21 0 0
  1.80   1.60   8.48 27 0 0
  1.80   1.70   8.48 38 0 0
  1.90   1.40   8.48 25 0 0
  1.90   1.50   8.48 36 0 0
  1.90   1.60   8.48 38 0 0
  1.90   1.70   8.48 54 0 0
  1.90   1.80   8.48 25 0 0
  1.90   1.90   8.48 22 0 0
  1.90   2.00   8.48 17 0 0
  2.00   1.40   8.48 24 0 0
  2.00   1.50   8.48 50 0 0
  2.00   1.60   8.48 53 0 0
  2.00   1.70   8.48 71 8 0
  2.00   1.80   8.48 38 0 0
  2.00   1.90   8.48 34 0 0
  2.00   2.00   8.48 30 0 0
  2.00   2.10   8.48 22 0 0
  2.10   1.30   8.48 19 0 0
  2.10   1.50   8.48 65 3 0
  2.10   1.60   8.48 78 14 0
  2.10   1.70   8.48 111 44 0
  2.10   2.00   8.48 47 0 0
  2.10   2.10   8.48 42 0 0
  2.10   2.20   8.48 33 0 0
  2.20   1.60   8.48 142 76 0
  2.20   1.70   8.48 116 50 0
  2.20   2.10   8.48 111 44 0
  2.20   2.20   8.48 154 93 0
  2.20   5.10   8.48 19 0 0
  2.30   1.60   8.48 142 76 0
  2.30   1.70   8.48 118 51 0
  2.30   2.20   8.48 160 107 0
  2.30   2.30   8.48 166 121 0
  2.30   5.10   8.48 22 0 0
  2.40   1.70   8.48 97 32 0
  2.40   1.80   8.48 66 4 0
  2.40   2.30   8.48 120 53 0
  2.40   2.40   8.48 178 152 0
  2.40   2.50   8.48 191 189 0
  2.40   5.10   8.48 31 0 0
  2.50   1.70   8.48 104 38 0
  2.50   1.80   8.48 97 32 0
  2.50   2.40   8.48 150 84 0
  2.50   2.50   8.48 157 100 0
  2.50   5.10   8.48 36 0 0
  2.60   1.70   8.48 138 72 0
  2.60   1.80   8.48 68 5 0
  2.60   1.90   8.48 26 0 0
  2.60   2.60   8.48 156 98 0
  2.60   2.70   8.48 190 186 0
  2.60   5.10   8.48 41 0 0
  2.70   1.70   8.48 88 23 0
  2.70   1.80   8.48 48 0 0
  2.70   1.90   8.48 23 0 0
  2.70   2.70   8.48 121 55 0
  2.70   2.80   8.48 163 114 0
  2.70   5.10   8.48 47 0 0
  2.80   1.80   8.48 42 0 0
  2.80   1.90   8.48 21 0 0
  2.80   2.80   8.48 104 38 0
  2.80   2.90   8.48 132 66 0
  2.80   5.10   8.48 57 0 0
  2.90   3.00   8.48 109 43 0
  2.90   5.10   8.48 61 0 0
  3.00   3.10   8.48 82 17 0
  3.00   3.20   8.48 113 46 0
  3.00   5.10   8.48 66 4 0
  3.10   3.20   8.48 59 0 0
  3.10   3.30   8.48 78 14 0
  3.10   5.10   8.48 72 9 0
  3.20   3.30   8.48 42 0 0
  3.20   3.40   8.48 62 1 0
  3.30   3.40   8.48 33 0 0
  3.30   3.50   8.48 48 0 0
  3.30   5.00   8.48 31 0 0
  3.40   3.50   8.48 28 0 0
  3.40   5.00   8.48 49 0 0
  3.50   3.60   8.48 24 0 0
  3.50   3.70   8.48 33 0 0
  3.50   5.00   8.48 35 0 0
  3.60   3.70   8.48 18 0 0
  3.60   5.00   8.48 33 0 0
  3.70   5.00   8.48 28 0 0
  1.60   1.60   8.52 17 0 0
  1.70   1.60   8.52 26 0 0
  2.00   2.20   8.52 18 0 0
  2.10   1.40   8.52 31 0 0
  2.10   2.30   8.52 28 0 0
  2.10   2.40   8.52 22 0 0
  2.10   2.50   8.52 17 0 0
  2.20   1.30   8.52 24 0 0
  2.20   1.40   8.52 46 0 0
  2.20   1.50   8.52 85 20 0
  2.20   2.30   8.52 69 6 0
  2.20   2.40   8.52 54 0 0
  2.20   2.50   8.52 41 0 0
  2.20   2.60   8.52 30 0 0
  2.20   2.70   8.52 21 0 0
  2.30   1.30   8.52 29 0 0
  2.30   1.40   8.52 93 27 0
  2.30   1.50   8.52 159 104 0
  2.30   2.40   8.52 148 82 0
  2.30   2.50   8.52 155 95 0
  2.30   2.60   8.52 86 21 0
  2.30   2.70   8.52 48 0 0
  2.30   2.80   8.52 28 0 0
  2.30   2.90   8.52 19 0 0
  2.30   5.20   8.52 17 0 0
  2.40   1.30   8.52 36 0 0
  2.40   1.40   8.52 134 68 0
  2.40   1.50   8.52 187 177 0
  2.40   1.60   8.52 152 89 0
  2.40   2.60   8.52 190 186 0
  2.40   2.70   8.52 125 59 0
  2.40   2.80   8.52 75 11 0
  2.40   2.90   8.52 42 0 0
  2.40   3.00   8.52 28 0 0
  2.40   3.10   8.52 18 0 0
  2.40   5.20   8.52 20 0 0
  2.50   1.30   8.52 47 0 0
  2.50   1.40   8.52 140 74 0
  2.50   1.50   8.52 203 203 35
  2.50   1.60   8.52 138 72 0
  2.50   2.60   8.52 201 201 28
  2.50   2.70   8.52 225 225 116
  2.50   2.80   8.52 167 124 0
  2.50   2.90   8.52 104 38 0
  2.50   3.00   8.52 59 0 0
  2.50   3.10   8.52 36 0 0
  2.50   3.20   8.52 21 0 0
  2.50   5.20   8.52 25 0 0
  2.60   1.20   8.52 21 0 0
  2.60   1.30   8.52 64 2 0
  2.60   1.40   8.52 148 82 0
  2.60   1.50   8.52 215 215 77
  2.60   1.60   8.52 183 166 0
  2.60   2.80   8.52 245 245 203
  2.60   2.90   8.52 193 193 3
  2.60   3.00   8.52 138 72 0
  2.60   3.10   8.52 76 12 0
  2.60   3.20   8.52 46 0 0
  2.60   3.30   8.52 28 0 0
  2.60   3.40   8.52 18 0 0
  2.60   3.50   8.52 20 0 0
  2.60   5.20   8.52 27 0 0
  2.70   1.20   8.52 25 0 0
  2.70   1.30   8.52 72 9 0
  2.70   1.40   8.52 172 136 0
  2.70   1.50   8.52 243 243 194
  2.70   1.60   8.52 156 98 0
  2.70   2.90   8.52 235 235 158
  2.70   3.00   8.52 220 220 96
  2.70   3.10   8.52 160 107 0
  2.70   3.20   8.52 121 55 0
  2.70   3.30   8.52 72 9 0
  2.70   3.40   8.52 35 0 0
  2.70   3.50   8.52 31 0 0
  2.70   5.20   8.52 31 0 0
  2.80   1.20   8.52 31 0 0
  2.80   1.30   8.52 93 27 0
  2.80   1.40   8.52 193 193 3
  2.80   1.50   8.52 222 222 104
  2.80   1.60   8.52 134 68 0
  2.80   1.70   8.52 79 15 0
  2.80   3.00   8.52 175 144 0
  2.80   3.10   8.52 223 223 108
  2.80   3.20   8.52 202 202 32
  2.80   3.30   8.52 121 55 0
  2.80   3.40   8.52 66 4 0
  2.80   3.50   8.52 50 0 0
  2.80   3.60   8.52 26 0 0
  2.80   5.20   8.52 39 0 0
  2.90   1.00   8.52 17 0 0
  2.90   1.20   8.52 56 0 0
  2.90   1.30   8.52 131 64 0
  2.90   1.40   8.52 174 141 0
  2.90   1.50   8.52 214 214 74
  2.90   1.60   8.52 121 55 0
  2.90   1.70   8.52 69 6 0
  2.90   1.80   8.52 34 0 0
  2.90   1.90   8.52 18 0 0
  2.90   3.10   8.52 140 74 0
  2.90   3.20   8.52 191 189 0
  2.90   3.30   8.52 187 177 0
  2.90   3.40   8.52 125 59 0
  2.90   3.50   8.52 73 10 0
  2.90   3.60   8.52 43 0 0
  2.90   3.70   8.52 25 0 0
  2.90   3.80   8.52 17 0 0
  2.90   5.20   8.52 43 0 0
  3.00   1.10   8.52 30 0 0
  3.00   1.20   8.52 38 0 0
  3.00   1.30   8.52 85 20 0
  3.00   1.40   8.52 191 189 0
  3.00   1.50   8.52 173 139 0
  3.00   1.60   8.52 120 53 0
  3.00   1.70   8.52 62 1 0
  3.00   1.80   8.52 34 0 0
  3.00   1.90   8.52 20 0 0
  3.00   3.30   8.52 174 141 0
  3.00   3.40   8.52 175 144 0
  3.00   3.50   8.52 163 114 0
  3.00   3.60   8.52 75 11 0
  3.00   3.70   8.52 46 0 0
  3.00   3.80   8.52 28 0 0
  3.00   3.90   8.52 19 0 0
  3.00   5.20   8.52 50 0 0
  3.10   1.10   8.52 17 0 0
  3.10   1.20   8.52 33 0 0
  3.10   1.30   8.52 82 17 0
  3.10   1.40   8.52 163 114 0
  3.10   1.50   8.52 187 177 0
  3.10   1.60   8.52 113 46 0
  3.10   1.70   8.52 56 0 0
  3.10   1.80   8.52 30 0 0
  3.10   1.90   8.52 18 0 0
  3.10   3.40   8.52 113 46 0
  3.10   3.50   8.52 165 119 0
  3.10   3.60   8.52 161 109 0
  3.10   3.70   8.52 90 24 0
  3.10   3.80   8.52 51 0 0
  3.10   4.00   8.52 21 0 0
  3.10   5.20   8.52 53 0 0
  3.20   1.20   8.52 31 0 0
  3.20   1.30   8.52 78 14 0
  3.20   1.40   8.52 155 95 0
  3.20   1.50   8.52 179 155 0
  3.20   1.60   8.52 96 30 0
  3.20   1.70   8.52 50 0 0
  3.20   1.80   8.52 27 0 0
  3.20   3.50   8.52 94 29 0
  3.20   3.60   8.52 158 102 0
  3.20   3.70   8.52 154 93 0
  3.20   3.80   8.52 90 24 0
  3.20   3.90   8.52 59 0 0
  3.20   4.00   8.52 34 0 0
  3.20   5.10   8.52 75 11 0
  3.20   5.20   8.52 57 0 0
  3.30   1.20   8.52 29 0 0
  3.30   1.30   8.52 75 11 0
  3.30   1.40   8.52 168 126 0
  3.30   1.50   8.52 140 74 0
  3.30   1.60   8.52 80 16 0
  3.30   1.70   8.52 43 0 0
  3.30   1.80   8.52 20 0 0
  3.30   3.60   8.52 76 12 0
  3.30   3.70   8.52 140 74 0
  3.30   3.80   8.52 150 84 0
  3.30   3.90   8.52 113 46 0
  3.30   4.00   8.52 55 0 0
  3.30   5.10   8.52 90 24 0
  3.30   5.20   8.52 82 17 0
  3.40   1.20   8.52 31 0 0
  3.40   1.30   8.52 71 8 0
  3.40   1.40   8.52 158 102 0
  3.40   1.50   8.52 123 57 0
  3.40   1.60   8.52 75 11 0
  3.40   1.70   8.52 34 0 0
  3.40   1.80   8.52 22 0 0
  3.40   3.60   8.52 39 0 0
  3.40   3.70   8.52 57 0 0
  3.40   3.80   8.52 131 64 0
  3.40   3.90   8.52 104 38 0
  3.40   4.00   8.52 114 48 0
  3.40   5.10   8.52 121 55 0
  3.40   5.20   8.52 56 0 0
  3.50   1.20   8.52 29 0 0
  3.50   1.30   8.52 64 2 0
  3.50   1.40   8.52 107 41 0
  3.50   1.50   8.52 144 78 0
  3.50   1.60   8.52 56 0 0
  3.50   1.70   8.52 35 0 0
  3.50   1.80   8.52 18 0 0
  3.50   3.80   8.52 51 0 0
  3.50   3.90   8.52 99 33 0
  3.50   4.00   8.52 91 26 0
  3.50   5.10   8.52 97 32 0
  3.50   5.20   8.52 45 0 0
  3.60   1.20   8.52 26 0 0
  3.60   1.30   8.52 54 0 0
  3.60   1.40   8.52 129 62 0
  3.60   1.50   8.52 97 32 0
  3.60   1.60   8.52 49 0 0
  3.60   1.70   8.52 26 0 0
  3.60   3.80   8.52 26 0 0
  3.60   3.90   8.52 39 0 0
  3.60   4.00   8.52 55 0 0
  3.60   4.10   8.52 97 32 0
  3.60   5.10   8.52 91 26 0
  3.60   5.20   8.52 32 0 0
  3.70   1.60   8.52 45 0 0
  3.70   1.70   8.52 25 0 0
  3.70   3.90   8.52 20 0 0
  3.70   4.00   8.52 28 0 0
  3.70   4.10   8.52 41 0 0
  3.70   4.20   8.52 71 8 0
  3.70   4.70   8.52 18 0 0
  3.70   5.10   8.52 80 16 0
  3.80   1.60   8.52 39 0 0
  3.80   1.70   8.52 22 0 0
  3.80   4.10   8.52 21 0 0
  3.80   4.20   8.52 31 0 0
  3.80   4.30   8.52 55 0 0
  3.80   5.00   8.52 33 0 0
  3.80   5.10   8.52 61 0 0
  3.90   1.70   8.52 18 0 0
  3.90   4.30   8.52 21 0 0
  3.90   4.40   8.52 30 0 0
  3.90   5.00   8.52 21 0 0
  3.90   5.10   8.52 42 0 0
  4.00   4.50   8.52 19 0 0
  4.00   5.00   8.52 18 0 0
  3.10   3.90   8.60 32 0 0
  3.20   4.10   8.60 23 0 0
  3.30   4.10   8.60 36 0 0
  3.30   4.20   8.60 24 0 0
  3.30   5.30   8.60 26 0 0
  3.40   4.10   8.60 62 1 0
  3.40   4.20   8.60 41 0 0
  3.40   4.30   8.60 25 0 0
  3.40   4.40   8.60 17 0 0
  3.50   4.10   8.60 104 38 0
  3.50   4.20   8.60 79 15 0
  3.50   4.30   8.60 38 0 0
  3.50   4.40   8.60 28 0 0
  3.50   4.50   8.60 17 0 0
  3.60   4.20   8.60 68 5 0
  3.60   4.30   8.60 83 19 0
  3.60   4.40   8.60 46 0 0
  3.60   4.50   8.60 30 0 0
  3.60   4.60   8.60 18 0 0
  3.70   1.20   8.60 22 0 0
  3.70   1.30   8.60 49 0 0
  3.70   1.40   8.60 120 53 0
  3.70   1.50   8.60 86 21 0
  3.70   4.30   8.60 61 0 0
  3.70   4.40   8.60 75 11 0
  3.70   4.50   8.60 54 0 0
  3.70   4.60   8.60 29 0 0
  3.70   5.20   8.60 28 0 0
  3.80   1.20   8.60 21 0 0
  3.80   1.30   8.60 49 0 0
  3.80   1.40   8.60 107 41 0
  3.80   1.50   8.60 76 12 0
  3.80   4.40   8.60 49 0 0
  3.80   4.50   8.60 49 0 0
  3.80   4.60   8.60 55 0 0
  3.80   4.70   8.60 38 0 0
  3.80   5.20   8.60 20 0 0
  3.90   1.20   8.60 21 0 0
  3.90   1.30   8.60 43 0 0
  3.90   1.40   8.60 97 32 0
  3.90   1.50   8.60 66 4 0
  3.90   1.60   8.60 33 0 0
  3.90   4.50   8.60 59 0 0
  3.90   4.60   8.60 45 0 0
  3.90   4.70   8.60 35 0 0
  3.90   4.80   8.60 29 0 0
  3.90   5.20   8.60 20 0 0
  4.00   1.20   8.60 18 0 0
  4.00   1.30   8.60 45 0 0
  4.00   1.40   8.60 88 23 0
  4.00   1.50   8.60 57 0 0
  4.00   1.60   8.60 39 0 0
  4.00   4.60   8.60 33 0 0
  4.00   4.70   8.60 29 0 0
  4.10   1.30   8.60 35 0 0
  4.10   1.40   8.60 57 0 0
  4.10   1.50   8.60 38 0 0
  4.10   1.60   8.60 32 0 0
  4.20   1.30   8.60 28 0 0
  4.20   1.40   8.60 48 0 0
  4.20   1.50   8.60 29 0 0
  4.20   1.60   8.60 25 0 0
  4.30   1.30   8.60 21 0 0
  4.30   1.40   8.60 34 0 0
  4.30   1.50   8.60 22 0 0
  4.40   1.40   8.64 17 0 0
  4.40   1.50   8.64 27 0 0
  4.50   1.50   8.64 18 0 0
